127.426 -79.5645 -31.4993
127.529 -79.5315 -30.8681
127.091 -79.863 -30.4197
126.986 -79.8998 -31.0536
126.551 -80.2094 -30.5897
127.032 -79.8465 -31.6447
126.338 -80.3175 -31.882
126.444 -80.2664 -31.2379
127.198 -79.8035 -29.7697
127.743 -79.4145 -29.5695
127.309 -79.7147 -29.0989
126.884 -79.938 -28.574
126.66 -80.1322 -29.9272
126.169 -80.4209 -29.8022
104.105 -95.302 -30.0627
125.365 -80.9538 -31.5741
125.704 -80.6265 -32.6334
126.239 -80.3131 -32.4867
125.801 -80.6404 -32.0354
125.167 -80.9481 -32.7859
125.266 -80.9501 -32.1794
103.671 -95.5997 -29.5904
125.907 -80.5929 -31.3939
126.01 -80.5603 -30.7629
124.727 -81.2876 -32.3431
124.827 -81.2824 -31.7315
124.387 -81.623 -31.2896
125.469 -80.9146 -30.9385
124.487 -81.6187 -30.6787
124.928 -81.2713 -31.1158
-1.31822 -116.602 -0.288719
126.236 -80.3496 -29.3981
126.725 -80.0651 -29.5374
125.577 -80.8466 -30.2825
125.904 -80.586 -29.5195
104.353 -95.0611 -28.5702
126.347 -80.2628 -28.7287
126.153 -80.3585 -28.146
125.97 -80.5016 -27.9098
125.255 -81.0482 -29.1344
125.42 -80.8809 -28.1423
125.529 -80.7419 -27.4883
125.802 -80.6457 -28.9246
125.366 -80.9602 -28.4642
124.709 -81.4434 -29.3389
124.974 -81.1007 -27.7489
124.873 -81.2772 -28.3513
125.035 -81.2132 -30.4668
125.142 -81.1538 -29.8169
104.023 -95.1782 -27.4729
129.342 -77.8938 -26.1268
129.446 -77.7294 -25.5079
128.887 -78.0672 -25.7973
129.087 -77.7019 -24.6093
128.983 -77.8647 -25.2306
128.542 -78.1082 -24.8046
128.259 -78.7358 -26.477
128.216 -78.5329 -25.8852
128.438 -78.2736 -25.4223
104.128 -95.0201 -26.8453
127.83 -78.8178 -25.4109
127.561 -78.7841 -24.5381
104.569 -94.7761 -27.2719
128.099 -78.3446 -24.3885
128.002 -78.5389 -24.9664
127.92 -78.9349 -26.1328
127.717 -79.1574 -26.6512
104.775 -94.4412 -26.0422
104.231 -94.8501 -26.2339
127.644 -78.5215 -24.0541
104.429 -94.4765 -25.0575
127.473 -79.0212 -25.0572
104.875 -94.2564 -25.4513
127.018 -79.2012 -24.7185
126.929 -79.4339 -25.2436
127.099 -78.9273 -24.25
126.471 -79.5963 -24.9292
127.159 -79.5016 -26.9319
127.256 -79.3764 -26.353
126.712 -79.7176 -26.5438
126.291 -79.9436 -25.9963
126.161 -80.0911 -26.7841
126.823 -79.6581 -25.8694
127.382 -79.2467 -25.5922
126.382 -79.8279 -25.4559
125.726 -80.3671 -26.3135
125.916 -79.953 -25.1927
126.011 -79.7493 -24.6277
125.459 -80.1205 -24.8712
125.82 -80.1558 -25.759
104.524 -94.2733 -24.4917
127.181 -78.6583 -23.7748
126.562 -79.3722 -24.3923
105.159 -93.6377 -23.7667
126.741 -78.9045 -23.3451
126.83 -78.6717 -22.8201
126.208 -79.3682 -23.4615
126.65 -79.1317 -23.8778
126.118 -79.6004 -23.9873
125.762 -79.5895 -23.0661
105.067 -93.8541 -24.3142
126.299 -79.1427 -22.9264
105.25 -93.412 -23.2319
104.799 -93.6045 -22.876
104.709 -93.8371 -23.4013
29.0732 -164.805 -91.8994
28.6963 -164.694 -91.1149
29.1372 -164.45 -91.5413
28.6322 -165.048 -91.4733
110.923 -90.3345 -26.0219
110.069 -90.5002 -37.4424
108.986 -91.2228 -37.8035
109.081 -91.2527 -37.2168
109.527 -90.8683 -37.6277
108.551 -91.5232 -37.3331
108.636 -91.6333 -36.8031
108.461 -91.451 -37.8899
108.016 -91.8308 -37.4756
109.178 -91.2734 -36.6235
108.961 -91.5312 -36.1552
108.722 -91.7332 -36.2659
108.104 -91.9176 -36.9292
108.187 -92.0444 -36.411
107.475 -92.1876 -37.6531
106.938 -92.5094 -37.8056
107.663 -92.2665 -36.4931
107.749 -92.3656 -35.9553
107.127 -92.5814 -36.6408
107.568 -92.2377 -37.0806
108.279 -92.097 -35.8403
108.365 -92.1038 -35.2354
108.038 -92.3896 -34.7708
107.22 -92.6304 -36.0676
107.307 -92.7225 -35.5249
107.838 -92.4496 -35.4069
111.38 -90.329 -32.5332
110.945 -90.6375 -32.0685
111.485 -90.2868 -31.8955
111.592 -90.2253 -31.2441
111.051 -90.5856 -31.424
110.509 -90.9444 -31.6027
110.405 -90.9829 -32.2379
110.299 -91.0298 -32.879
109.757 -91.3952 -33.0624
109.865 -91.3327 -32.4103
109.967 -91.3063 -31.7838
103.557 -95.7104 -30.2766
109.426 -91.6666 -31.9636
110.07 -91.2787 -31.1564
109.53 -91.6235 -31.3252
109.64 -91.5442 -30.6612
109.097 -91.9129 -30.847
108.987 -91.9937 -31.5121
109.324 -91.682 -32.5824
108.784 -92.0331 -32.7557
108.138 -92.4277 -33.5678
103.014 -96.0809 -30.4637
108.883 -92.0365 -32.1502
107.7 -92.755 -33.1164
108.241 -92.4 -32.9403
108.447 -92.3426 -31.6839
107.908 -92.6816 -31.8487
107.801 -92.7445 -32.501
108.342 -92.3895 -32.325
110.182 -91.1832 -30.4809
110.293 -91.0921 -29.8085
109.204 -91.8569 -30.1995
109.749 -91.4718 -30.0021
109.861 -91.3707 -29.3227
103.916 -95.3242 -28.1173
108.772 -92.1391 -29.7162
19.4627 -253.128 -8.81757
108.553 -92.2909 -31.0394
108.662 -92.2202 -30.3815
110.824 -90.5173 -26.6157
109.316 -91.7604 -29.5234
110.481 -90.5717 -25.6046
107.496 -92.7994 -34.3635
103.806 -95.4582 -28.7782
103.369 -95.7234 -28.3224
102.823 -96.1205 -28.5304
112.462 -89.3144 -26.0078
112.358 -89.4789 -26.6267
111.917 -89.7201 -26.2039
111.364 -90.0903 -26.4488
111.702 -90.016 -27.4872
111.81 -89.8717 -26.8406
111.264 -90.2694 -27.0477
103.478 -95.5803 -27.674
111.469 -89.9302 -25.824
112.018 -89.5461 -25.5981
111.023 -90.1484 -25.4328
110.67 -90.1527 -24.4905
111.217 -89.7574 -24.2801
112.015 -88.5825 -22.6063
111.645 -88.5014 -21.7816
111.39 -89.2654 -23.2664
111.929 -88.8301 -23.111
111.475 -89.0094 -22.7733
111.763 -89.3563 -24.0777
112.304 -88.9317 -23.9076
112.393 -88.6948 -23.3882
111.848 -89.1037 -23.5799
104.331 -94.6688 -25.6382
103.686 -95.259 -26.4257
103.982 -94.6924 -24.6695
104.618 -94.0599 -23.9401
104.076 -94.4821 -24.1136
104.168 -94.2622 -23.5708
104.258 -94.0326 -23.0414
104.433 -93.5463 -22.0198
104.886 -93.3632 -22.3627
104.972 -93.113 -21.8616
94.1665 -100.738 -22.1391
94.0798 -100.984 -22.6467
93.616 -101.118 -22.3715
93.5254 -101.345 -22.904
103.126 -95.9857 -29.7884
102.472 -96.4476 -30.6481
102.151 -96.6343 -29.4893
76.634 -87.2724 -0.481862
25.8635 -268.724 -55.0012
7.7608 -255.204 -58.5619
7.76259 -255.874 -58.4864
102.931 -95.9813 -27.8766
7.76269 -256.535 -58.422
7.76482 -257.206 -58.3444
78.5312 -85.9032 -4.51014
103.038 -95.8303 -27.2392
15.7036 -269.46 -8.5445
15.6897 -270.055 -8.57245
103.583 -95.4256 -27.0417
103.886 -94.8921 -25.24
103.343 -95.3074 -25.4229
103.787 -95.081 -25.8253
103.627 -94.6871 -23.7404
104.346 -93.7938 -22.5246
0.736805 -69.277 -45.6552
0.992712 -69.0853 -45.6576
1.43688 -68.3913 -45.6902
1.45749 -68.0912 -45.721
103.807 -94.2245 -22.6863
103.979 -93.7259 -21.6817
102.579 -96.3865 -29.9969
103.24 -95.8738 -29.1013
102.694 -96.2641 -29.3025
102.265 -96.5219 -28.8019
101.72 -96.9076 -28.9997
102.385 -96.3799 -28.0825
102.492 -96.2336 -27.4386
103.142 -95.6674 -26.6181
103.243 -95.4929 -26.0129
102.7 -95.9041 -26.2015
102.597 -96.0748 -26.8119
103.535 -94.904 -24.2874
102.897 -95.5293 -25.0266
103.44 -95.1112 -24.8476
103.718 -94.4606 -23.2067
103.086 -95.1118 -23.9105
102.993 -95.3255 -24.4617
103.354 -94.4132 -22.3357
103.894 -93.9798 -22.1777
103.44 -94.1621 -21.8359
101.607 -97.0163 -29.6845
61.0554 -254.598 -151.143
60.9819 -254.907 -151.564
101.838 -96.7763 -28.2914
62.7001 -253.984 -153.542
102.256 -96.136 -25.7915
102.155 -96.3142 -26.3915
61.7289 -254.605 -153.224
102.8 -95.7221 -25.6066
61.2907 -254.934 -152.773
102.355 -95.9468 -25.2066
103.177 -94.8884 -23.3725
102.545 -95.5359 -24.0813
103.267 -94.6552 -22.8481
102.727 -95.0854 -23.0105
7.16489 -247.01 -7.34692
7.29369 -246.345 -7.1995
7.14716 -245.095 -7.43844
5.37417 -243.535 -8.12264
4.02943 -241.858 -8.80335
3.71339 -242.169 -9.16386
3.2613 -246.112 -12.3294
3.25481 -245.983 -12.389
102.901 -94.5981 -21.9902
76.0004 -134.29 -61.8947
75.4896 -132.877 -62.0556
76.018 -133.052 -61.906
76.0125 -133.687 -61.8785
74.9641 -134.037 -62.0592
75.4856 -133.518 -62.0185
75.4741 -134.124 -62.0306
75.9928 -134.914 -61.8808
74.9571 -134.665 -62.0418
75.4675 -134.753 -62.0108
75.4673 -135.414 -61.9479
74.955 -135.315 -61.9922
75.9852 -135.539 -61.8675
84.1061 -160.942 -49.2367
84.2603 -161.06 -49.969
78.8301 -155.274 -53.6566
78.741 -155.388 -54.3492
79.2571 -155.456 -52.608
78.8981 -155.159 -52.9606
79.5571 -155.983 -53.6599
78.8437 -155.912 -55.3689
79.3243 -155.341 -51.9118
79.3485 -155.174 -44.3179
79.5523 -155.468 -43.9399
80.1161 -156.174 -43.9166
78.721 -154.466 -44.3309
78.8557 -154.584 -45.06
79.1638 -155.23 -42.4623
79.1702 -155.055 -43.5817
79.3694 -155.349 -43.203
79.7484 -155.762 -43.5607
80.2744 -156.468 -43.5312
80.433 -156.761 -43.1458
80.0987 -156.349 -42.7954
79.939 -156.056 -43.1806
80.248 -156.643 -42.4085
80.6057 -157.055 -42.7627
79.9065 -156.231 -42.0569
79.7679 -155.937 -42.4455
79.378 -155.525 -42.086
79.5642 -155.643 -42.8235
78.9828 -154.936 -42.844
79.0145 -155.112 -41.7308
80.0354 -156.524 -41.6667
79.5736 -155.819 -41.7067
78.8013 -154.643 -43.2256
78.811 -154.818 -42.1088
79.1808 -155.406 -41.3467
78.9518 -155.287 -40.6022
81.2794 -157.465 -51.8848
81.5262 -157.76 -51.5138
81.4885 -157.644 -50.8006
82.0484 -158.466 -51.4837
81.7891 -157.939 -50.4384
82.0673 -158.235 -50.0725
82.064 -158.35 -50.7791
81.7812 -158.055 -51.1442
82.3583 -158.646 -50.4159
82.3523 -158.993 -52.5363
82.6634 -159.289 -52.1758
83.0058 -159.47 -51.1133
83.0216 -159.586 -51.823
82.7089 -159.174 -51.4761
82.3678 -158.762 -51.1246
83.0332 -159.701 -52.532
81.8105 -158.287 -52.5632
82.0591 -158.697 -52.8997
82.0869 -158.582 -52.1971
81.5331 -157.876 -52.2221
81.7724 -158.171 -51.8499
82.3803 -158.878 -51.8337
82.6474 -159.057 -50.759
82.914 -159.352 -50.3912
83.5111 -160.235 -49.2549
81.9539 -158.117 -49.3469
82.1594 -158.412 -48.9692
82.5926 -158.941 -50.0429
82.3093 -158.53 -49.7008
81.8488 -158 -48.6226
82.0861 -158.295 -48.2501
83.5512 -160.176 -51.087
83.2261 -159.764 -50.738
80.5661 -156.641 -51.1766
81.1013 -157.231 -50.4415
81.2357 -157.349 -51.1705
80.8698 -156.936 -50.8149
80.5569 -156.525 -50.468
81.3994 -157.527 -50.0789
81.7137 -157.823 -49.719
82.091 -158.47 -47.1325
80.7509 -156.822 -45.7303
80.4109 -156.41 -45.379
80.9379 -157.116 -45.3496
80.6248 -156.88 -43.8842
80.5834 -156.704 -44.9959
81.1225 -157.41 -44.9685
81.759 -158.058 -46.7825
81.4454 -157.647 -46.4354
81.1096 -157.235 -46.0847
81.3069 -157.529 -45.7057
81.9082 -158.176 -47.514
78.7556 -154.463 -48.6946
79.0462 -154.759 -48.3308
79.693 -155.466 -48.321
79.3181 -155.054 -47.964
79.6006 -155.349 -47.5988
78.9388 -154.641 -47.6062
78.6849 -154.346 -47.976
79.0904 -154.819 -46.5125
78.7476 -154.407 -46.1607
79.1144 -154.875 -49.0491
79.5749 -155.405 -50.1272
79.414 -155.171 -48.6867
79.4804 -155.288 -49.4047
79.775 -155.583 -49.0415
79.3612 -155.114 -46.1455
79.9862 -155.762 -47.9576
79.8574 -155.644 -47.2295
79.2269 -154.937 -47.242
79.4959 -155.232 -46.8746
79.7574 -155.527 -46.5061
79.6109 -155.409 -45.775
79.9928 -155.822 -46.1332
79.2243 -154.996 -45.416
80.3521 -156.234 -46.4877
80.118 -155.939 -46.8608
78.8282 -154.524 -46.881
79.0003 -154.702 -45.7907
101.086 -97.3989 -29.8838
81.139 -175.723 -29.5363
80.6899 -175.267 -29.2277
81.141 -175.072 -29.5874
80.6877 -176.028 -29.168
79.8021 -174.485 -28.5339
79.7948 -173.707 -28.6538
79.3558 -173.96 -28.2152
-1.14091 -73.5331 -0.248087
80.2509 -174.858 -28.8529
79.8016 -175.062 -28.4815
80.2488 -175.509 -28.8031
80.2475 -176.372 -28.7279
79.7954 -176.355 -28.395
79.3528 -174.607 -28.1713
79.8015 -175.722 -28.4189
79.3463 -176.559 -28.0229
-0.644486 -74.8774 -0.181406
-0.633838 -74.2674 -0.174958
-1.14982 -74.1514 -0.243097
-1.16769 -75.388 -0.233409
101.4 -97.0352 -27.8443
-1.16026 -74.7625 -0.248173
101.291 -97.1735 -28.4992
78.0665 -172.083 -27.146
102.052 -96.4807 -27.0076
101.946 -96.6351 -27.6405
101.507 -96.885 -27.2056
101.611 -96.7229 -26.5836
-1.44458 -156.609 -0.312149
-1.43682 -155.985 -0.324709
-0.937318 -157.344 -0.237795
102.096 -95.7421 -23.7067
102.451 -95.7465 -24.6369
102.637 -95.3156 -23.5391
102.815 -94.8463 -22.4942
-0.511156 -98.9413 -0.150102
-0.527471 -100.185 -0.130201
-0.537255 -100.799 -0.130966
-0.556731 -102.028 -0.131885
-0.272563 -179.615 -0.227689
-0.781341 -178.872 -0.312037
-0.797369 -180.118 -0.290249
100.896 -97.5116 -30.5599
101.174 -97.3021 -29.2038
100.745 -97.5733 -28.7035
100.854 -97.4334 -28.0506
101.269 -96.7785 -25.5709
101.713 -96.5487 -25.9779
101.812 -96.3632 -25.3879
101.909 -96.1665 -24.8132
102.003 -95.9592 -24.2532
102.275 -95.2787 -22.6536
102.187 -95.515 -23.1737
102.447 -94.7796 -21.6495
102.362 -95.0337 -22.1454
31.9361 -196.166 -62.036
159.294 -6.08304 -26.4886
156.073 -3.46847 -30.95
156.178 -3.42215 -30.3093
155.638 -3.77061 -30.4808
155.741 -3.74052 -29.8516
155.098 -4.12215 -30.6545
154.661 -4.43856 -30.1954
154.557 -4.47252 -30.8273
155.2 -4.09429 -30.0269
154.764 -4.40988 -29.5672
155.402 -4.07517 -28.7976
154.225 -4.74648 -29.7303
154.122 -4.77702 -30.3598
154.453 -4.51022 -31.4619
154.958 -4.44638 -28.3773
154.862 -4.41977 -28.9663
158.97 -2.51372 -25.7117
159.13 -2.80723 -24.7036
158.599 -3.08319 -24.8238
158.438 -2.79684 -25.837
158.521 -2.92587 -25.3204
157.987 -3.22564 -25.4574
157.453 -3.52853 -25.5966
157.369 -3.41393 -26.1234
158.067 -3.37384 -24.9544
157.002 -3.95606 -25.2162
157.536 -3.65473 -25.078
156.919 -3.8273 -25.7329
156.469 -4.2482 -25.3478
156.014 -4.70372 -24.9871
156.3 -4.01849 -26.401
156.387 -4.1179 -25.8635
155.934 -4.5543 -25.4893
155.762 -4.35205 -26.562
155.849 -4.44826 -26.0222
155.313 -4.76536 -26.1714
155.399 -4.86467 -25.6338
155.48 -4.99995 -25.1217
154.864 -5.17501 -25.7783
155.562 -5.13755 -24.6111
155.029 -5.43137 -24.744
153.536 -5.35163 -33.8904
153.096 -5.59615 -33.463
153.797 -4.98501 -32.3306
153.307 -5.28642 -32.1987
152.828 -5.59094 -32.0013
153.369 -5.23232 -31.8226
153.64 -5.18428 -33.2754
153.197 -5.42134 -32.8583
152.758 -5.6752 -32.4181
152.207 -6.05191 -32.6541
154.157 -5.28379 -26.996
154.692 -4.97382 -26.8517
100.089 -98.0314 -29.5697
100.627 -97.7055 -29.4142
155.763 -4.23894 -35.876
155.668 -4.44572 -36.4368
154.673 -5.05172 -36.2664
155.314 -4.44185 -35.5059
155.218 -4.64466 -36.0721
154.769 -4.84989 -35.6988
154.579 -5.25941 -36.8259
154.035 -5.67275 -37.0115
154.226 -5.26292 -35.8848
154.127 -5.44936 -36.4736
153.684 -5.68541 -36.0578
153.781 -5.48936 -35.4823
154.325 -5.07629 -35.2963
153.335 -5.70947 -35.0885
153.877 -5.29004 -34.9113
153.978 -5.11036 -34.3132
153.142 -6.10488 -36.235
153.238 -5.90314 -35.6673
153.497 -6.10924 -37.1653
153.59 -5.89825 -36.6103
152.956 -6.53501 -37.3338
138.589 -16.2372 -37.498
138.136 -16.4246 -37.1492
137.599 -16.8652 -37.2973
138.227 -16.198 -36.6156
137.687 -16.6287 -36.7774
137.147 -17.0598 -36.9386
137.422 -17.3421 -38.3318
137.509 -17.098 -37.8223
136.968 -17.5213 -37.9942
136.602 -17.4619 -37.1397
100.196 -97.9608 -28.9245
137.056 -17.2841 -37.4753
137.239 -16.8369 -36.4
136.793 -17.0543 -36.0099
136.425 -17.9379 -38.1754
138.516 -15.2072 -31.8402
138.017 -15.5534 -31.3934
138.19 -15.4351 -30.7105
137.87 -15.6668 -32.0765
137.49 -15.9518 -31.6031
137.365 -16.0655 -32.2898
137.749 -15.787 -30.2766
137.408 -16.1254 -29.2252
137.952 -15.7526 -29.0365
137.508 -16.1188 -28.6127
138.141 -15.8188 -27.8675
137.061 -16.518 -28.2122
137.603 -16.1537 -28.0294
136.987 -16.6651 -34.8549
136.539 -16.8724 -34.4787
136.441 -17.0635 -35.061
136.645 -16.7201 -33.8431
137.089 -16.494 -34.245
135.989 -17.2576 -34.703
136.09 -17.0791 -34.1033
136.862 -16.4399 -32.5382
137.193 -16.3306 -33.6247
136.755 -16.5869 -33.181
136.198 -16.9352 -33.4561
136.31 -16.8091 -32.7844
101.066 -97.1298 -26.7779
100.521 -97.5344 -26.9756
135.65 -17.3277 -33.6704
135.545 -17.4843 -34.3002
135.104 -17.7302 -33.8708
100.961 -97.287 -27.4069
101.169 -96.9601 -26.1662
100.725 -97.1924 -25.7557
100.624 -97.3701 -26.3564
100.92 -96.8026 -24.6014
101.366 -96.5855 -24.9911
101.555 -96.1676 -23.8755
101.462 -96.3816 -24.4264
101.646 -95.9438 -23.3381
101.736 -95.7103 -22.8141
101.106 -96.3715 -23.504
101.823 -95.4681 -22.302
101.909 -95.2169 -21.8022
101.284 -95.9013 -22.4602
6.61542 -10.1948 -8.49593
6.6347 -8.96502 -8.49628
6.09186 -9.38151 -8.67757
6.10945 -8.80469 -8.62544
6.62228 -9.56656 -8.51441
5.54027 -9.75603 -8.91654
6.60151 -10.7892 -8.52383
6.08413 -10.0055 -8.66484
6.07212 -10.609 -8.68025
5.5224 -10.3315 -8.97055
6.05156 -11.1716 -8.75198
5.41804 -10.8526 -9.08525
5.55135 -9.14807 -8.90722
5.20613 -10.1516 -9.16606
4.9067 -10.5536 -9.41302
5.00079 -9.45073 -9.24794
4.73738 -9.85326 -9.50078
5.07765 -11.2539 -9.32552
4.74931 -11.6555 -9.56775
4.93128 -12.356 -9.48205
100.305 -97.8248 -28.2665
99.5888 -98.364 -29.1127
3.844 -4.81615 -4.26547
3.82394 -6.04218 -4.27021
3.30054 -5.89069 -4.38721
3.8163 -6.66665 -4.25684
99.865 -98.071 -27.8368
100.414 -97.6838 -27.6152
99.9746 -97.9351 -27.1786
187.94 -30.5398 -25.5684
100.824 -97.003 -25.1709
176.179 -13.7234 -12.3289
175.662 -14.2641 -12.3395
176.181 -14.3927 -12.254
175.665 -14.9377 -12.2587
175.666 -13.6205 -12.3791
175.145 -14.801 -12.3553
175.154 -14.1837 -12.3589
174.646 -13.4461 -12.4365
174.642 -14.0848 -12.4035
174.631 -15.358 -12.3435
174.63 -14.6931 -12.4124
101.014 -96.592 -24.0459
174.121 -13.9487 -12.4993
174.116 -13.0412 -12.6207
173.594 -13.1156 -12.7082
173.597 -13.9792 -12.6015
173.08 -13.6715 -12.6979
174.119 -14.5988 -12.4507
173.607 -14.5015 -12.4933
174.119 -15.2576 -12.3902
101.196 -96.1408 -22.9762
172.51 -10.9478 -13.3459
173.042 -11.4208 -13.1477
172.493 -10.3234 -13.5119
171.99 -11.1474 -13.412
172.01 -11.7504 -13.2308
172.542 -12.2169 -13.0281
172.522 -11.6131 -13.2087
171.47 -11.341 -13.4739
170.927 -10.9529 -13.7321
171.493 -11.9227 -13.2776
172.027 -12.3779 -13.0669
172.426 -10.8491 -10.7694
172.957 -11.328 -10.5754
173.466 -11.2161 -10.5713
171.911 -11.0027 -10.803
172.444 -11.4648 -10.5971
171.396 -11.1575 -10.8375
171.945 -12.2585 -10.4758
171.928 -11.6295 -10.6386
172.477 -12.7264 -10.2741
172.46 -12.0972 -10.4367
171.433 -12.3939 -10.4965
171.962 -12.8824 -10.3093
100.831 -96.0876 -22.113
170.433 -11.7052 -13.5814
100.744 -96.3333 -22.6202
170.973 -12.1115 -13.3361
170.951 -11.5282 -13.5313
169.892 -11.3046 -13.8308
169.916 -11.881 -13.6307
169.378 -11.4542 -13.8616
171.415 -11.7716 -10.6641
170.881 -11.3187 -10.8764
169.852 -11.6259 -10.9436
170.919 -12.542 -10.5262
170.901 -11.9205 -10.6944
170.935 -13.1786 -10.3688
170.386 -12.0764 -10.7296
170.366 -11.4734 -10.9109
169.891 -12.8422 -10.5885
170.405 -12.6898 -10.5558
169.377 -12.985 -10.6145
169.355 -12.3972 -10.8064
169.872 -12.2247 -10.7595
101.37 -95.6529 -21.9567
176.062 -14.1933 -9.90173
176.562 -14.2344 -9.93647
175.553 -13.4044 -9.98848
175.559 -14.1418 -9.88133
176.052 -13.3676 -10.0375
176.566 -14.9139 -9.84744
176.064 -14.8658 -9.82243
175.542 -12.7376 -10.1245
174.531 -12.9033 -10.0916
175.025 -12.1507 -10.2421
175.037 -12.8151 -10.1043
174.54 -13.5925 -9.97139
175.047 -13.3826 -9.98875
175.052 -14.0696 -9.88941
174.543 -13.9879 -9.91039
175.054 -14.7382 -9.81536
174.547 -14.6668 -9.82222
174.547 -15.328 -9.7583
174.009 -12.3589 -10.2392
173.498 -12.4829 -10.2519
173.511 -13.14 -10.1089
174.021 -13.0212 -10.0999
174.031 -13.8908 -9.95269
174.038 -15.2436 -9.7832
173.52 -13.7965 -9.99109
174.038 -14.5815 -9.8483
175.56 -14.8048 -9.815
175.052 -15.3882 -9.7669
175.555 -15.4462 -9.77834
99.1771 -98.6485 -28.6342
99.7554 -98.207 -28.4949
100.08 -97.7793 -26.5477
100.182 -97.6049 -25.9424
100.281 -97.4187 -25.3534
161.281 -23.6087 -9.52396
160.259 -24.0855 -9.53108
159.749 -23.9951 -9.5642
159.747 -24.6481 -9.51161
158.724 -24.4573 -9.59131
160.771 -24.1801 -9.49236
160.258 -24.7402 -9.47615
161.281 -24.2672 -9.46381
160.767 -24.823 -9.45362
160.762 -25.4591 -9.42423
159.745 -25.2986 -9.46243
160.254 -25.382 -9.43895
159.744 -25.9561 -9.40363
159.235 -25.8705 -9.43005
159.231 -26.5125 -9.39254
158.719 -23.7752 -9.68389
159.231 -23.2675 -9.70163
158.204 -23.6638 -9.74591
159.237 -23.8988 -9.60534
158.208 -24.3432 -9.65702
158.211 -25.0184 -9.5739
157.164 -23.1918 -9.95565
157.69 -23.7117 -9.79074
157.698 -24.916 -9.62335
157.695 -24.2395 -9.70824
157.177 -24.1168 -9.78568
157.183 -24.8041 -9.68595
159.236 -24.5562 -9.54661
159.235 -25.2118 -9.4905
158.726 -25.1314 -9.50972
157.703 -25.5993 -9.5292
158.725 -25.7866 -9.45408
158.214 -26.3529 -9.42944
158.723 -26.4383 -9.40329
99.8349 -97.6386 -24.9599
158.214 -25.6945 -9.48947
157.188 -25.4907 -9.58724
157.703 -26.2615 -9.4639
157.19 -26.1624 -9.50892
158.212 -27.0039 -9.37963
157.19 -26.8218 -9.44744
157.702 -26.9195 -9.40436
157.698 -27.5617 -9.36662
100.473 -97.015 -24.2182
64.6258 -153.981 -79.838
65.0276 -155.207 -80.7912
65.2428 -154.688 -79.8234
64.407 -154.5 -80.8053
64.7491 -154.39 -80.154
65.273 -156.025 -81.423
65.422 -156.434 -81.7431
64.3687 -155.428 -82.0978
64.717 -156.247 -82.7464
64.8308 -155.727 -81.762
65.1465 -155.616 -81.1065
64.8963 -154.799 -80.4739
64.694 -155.318 -81.4438
64.9858 -156.136 -82.0832
100.378 -97.222 -24.7787
99.9306 -97.436 -24.3933
155.605 -23.0102 -10.2099
155.59 -22.3691 -10.3641
65.3594 -155.097 -80.1383
65.4316 -155.505 -80.4459
64.294 -154.092 -80.491
63.5862 -153.383 -80.4908
63.996 -153.273 -79.8506
100.565 -96.7978 -23.6717
100.656 -96.5702 -23.1396
63.751 -153.792 -80.8136
63.9333 -154.202 -81.1392
64.0603 -154.61 -81.4558
63.5309 -154.311 -81.7806
64.1341 -153.682 -80.169
65.0841 -154.279 -79.5016
63.2662 -153.493 -81.1457
63.1087 -153.084 -80.8241
64.0278 -155.539 -82.7493
64.2415 -155.02 -81.7812
64.5369 -154.909 -81.1223
155.091 -23.1648 -10.2441
155.074 -22.5355 -10.4068
154.538 -22.099 -10.6307
154.559 -22.6941 -10.4439
154.043 -22.8601 -10.4863
154.021 -22.2717 -10.6779
153.998 -21.6889 -10.8734
152.963 -22.0404 -10.972
152.986 -22.6232 -10.7764
100.115 -96.9986 -23.3045
153.503 -22.448 -10.7275
153.54 -23.6754 -10.3802
153.524 -23.0476 -10.5439
154.058 -23.5017 -10.3324
153.005 -23.2281 -10.5965
141.456 -13.9207 -26.3671
140.92 -14.2381 -26.5166
140.471 -14.6506 -26.1255
141.006 -14.3407 -25.9813
140.554 -14.7718 -25.6034
139.933 -14.9803 -26.2837
140.635 -14.9126 -25.0951
140.716 -15.0497 -24.5843
140.183 -15.3459 -24.7188
140.02 -15.0768 -25.7441
139.486 -15.3809 -25.8842
140.102 -15.2053 -25.2271
139.569 -15.4977 -25.359
61.1008 -153.082 -83.0667
60.1601 -151.965 -82.7288
60.6254 -152.499 -82.9311
60.0857 -152.27 -83.1552
138.86 -15.6254 -26.59
139.398 -15.2908 -26.4284
138.769 -15.562 -27.1531
61.0244 -153.377 -83.5056
61.1592 -154.039 -84.3372
138.947 -15.7165 -26.0466
60.8532 -153.879 -84.5057
61.3179 -154.41 -84.712
139.652 -15.6225 -24.8394
61.4836 -153.882 -83.7482
139.031 -15.8306 -25.5194
59.9353 -152.872 -84.0184
60.7695 -154.139 -84.9935
138.495 -16.1491 -25.6697
60.3277 -153.328 -84.3168
138.41 -16.0382 -26.1991
60.2215 -153.87 -85.2728
138.578 -16.2756 -25.1513
60.5538 -152.818 -83.3388
60.9381 -153.625 -84.0105
60.4792 -153.121 -83.7663
60.0134 -152.585 -83.5679
60.3004 -153.587 -84.8169
140.265 -15.4817 -24.2069
139.732 -15.771 -24.3366
61.2473 -152.462 -82.2288
61.3293 -152.194 -81.7524
62.1808 -152.894 -81.791
62.3243 -153.303 -82.1102
61.7862 -152.688 -82.0098
61.7086 -152.977 -82.457
139.114 -15.9565 -25.0006
61.9555 -152.176 -81.0225
139.276 -16.2387 -23.9846
61.8714 -152.435 -81.5123
60.7054 -152.222 -82.4677
138.661 -16.401 -24.6322
60.7855 -151.945 -82.0037
60.3205 -151.412 -81.7997
139.196 -16.0872 -24.4853
61.1705 -152.755 -82.671
61.5673 -153.622 -83.2607
62.0266 -154.127 -83.5021
61.6426 -153.322 -82.8281
61.9496 -154.42 -83.9456
59.5531 -152.075 -83.3325
59.6278 -151.771 -82.9046
59.7876 -151.215 -81.9793
60.2441 -151.707 -82.2394
59.7077 -151.493 -82.4419
59.4761 -152.367 -83.7764
59.8427 -153.089 -84.5644
62.5095 -150.204 -77.8192
61.9569 -149.912 -78.1288
62.4274 -150.471 -78.2963
62.5841 -149.9 -77.3917
62.3475 -150.749 -78.7593
62.8981 -151.031 -78.4627
62.979 -150.758 -77.9934
62.9457 -150.41 -77.6081
62.2673 -151.026 -79.2237
61.4659 -158.34 -89.6334
61.0064 -157.833 -89.3933
62.4244 -160.099 -90.807
60.6754 -158.892 -91.318
60.8438 -158.377 -90.3363
61.3035 -158.884 -90.5756
100.292 -96.5209 -22.2711
60.9249 -158.104 -89.8658
61.3865 -158.621 -90.0921
61.8646 -159.216 -90.21
61.6169 -159.389 -90.7906
61.153 -159.485 -91.4393
61.2239 -159.164 -91.0359
65.5436 -160.036 -86.2511
65.3657 -161.891 -88.8197
65.365 -160.556 -87.2249
65.5328 -160.965 -87.5482
65.287 -161.483 -88.511
64.5284 -156.767 -83.7186
64.6571 -157.175 -84.0354
64.7569 -157.584 -84.3476
64.3985 -157.016 -84.2127
63.7523 -156.986 -85.0061
63.9275 -156.455 -84.0482
64.6986 -158.512 -85.6369
64.9723 -158.4 -84.9744
63.7059 -157.914 -86.2973
64.2273 -158.213 -85.9712
64.1644 -157.878 -85.5635
64.2477 -157.285 -84.6757
64.4036 -157.694 -84.997
64.5748 -158.103 -85.3208
64.3517 -158.622 -86.2873
61.87 -154.699 -84.4059
61.7861 -154.958 -84.8948
62.336 -155.237 -84.6031
62.7331 -156.105 -85.1911
61.9634 -155.678 -85.6519
61.6253 -155.51 -85.8265
62.6541 -156.388 -85.6475
62.808 -157.725 -87.2691
62.9629 -157.495 -86.7525
62.4138 -157.22 -87.0387
62.4958 -156.952 -86.5625
61.3966 -156.397 -87.1419
61.4799 -156.136 -86.6567
61.7838 -157.218 -87.7945
61.3158 -156.672 -87.6098
62.0264 -156.398 -86.3876
62.5701 -156.646 -86.1372
62.1547 -156.088 -85.979
61.5546 -155.832 -86.2286
61.9466 -156.677 -86.8491
61.8633 -156.939 -87.3342
62.8754 -155.868 -84.6825
63.2876 -156.406 -84.8688
63.5942 -156.577 -84.6844
63.3983 -157.096 -85.6554
63.3711 -156.145 -84.3825
63.239 -156.687 -85.3335
63.3432 -155.759 -84.0517
64.0038 -156.159 -83.6095
62.2592 -155.53 -85.0453
62.7429 -155.459 -84.365
62.967 -155.243 -83.8415
62.8697 -156.797 -85.9803
63.8669 -157.394 -85.3206
63.5524 -157.505 -85.9764
63.0452 -157.228 -86.2742
61.2361 -156.951 -88.071
60.6871 -156.677 -88.3569
60.7639 -156.384 -87.9146
60.3848 -155.602 -87.2084
60.3055 -155.882 -87.6673
59.7641 -155.645 -87.9025
59.9231 -155.085 -86.9827
59.8433 -155.363 -87.4449
60.2209 -156.138 -88.1606
60.1462 -156.442 -88.5888
143.901 -36.3141 -9.23763
143.388 -36.8721 -9.22443
143.391 -36.2268 -9.26641
142.88 -36.1331 -9.30401
142.37 -36.7063 -9.26994
142.37 -36.0481 -9.3296
142.879 -36.7892 -9.24719
142.877 -37.4405 -9.19683
141.863 -37.2956 -9.21368
142.37 -37.3673 -9.20628
141.86 -37.9426 -9.1692
141.352 -36.543 -9.31194
141.862 -36.6309 -9.28225
140.33 -37.6814 -9.25455
140.84 -37.7699 -9.22423
140.837 -38.4132 -9.18492
141.35 -37.8565 -9.19641
28.0331 -148.347 -68.8237
27.5989 -148.623 -68.3532
28.2257 -147.286 -67.7466
27.7263 -147.911 -67.6417
27.6602 -148.256 -68.0128
136.632 -33.4845 -10.588
27.2955 -149.793 -69.2544
27.8439 -149.424 -69.8784
27.1722 -150.198 -69.5301
27.5628 -148.984 -68.7064
27.4526 -149.389 -68.9842
26.9653 -150.079 -68.7892
29.3333 -154.322 -78.904
29.6587 -152.575 -77.0795
29.2781 -152.447 -76.3194
29.1486 -153.149 -77.0448
28.9032 -152.346 -75.5222
29.3431 -152.097 -75.9549
28.9686 -151.998 -75.1549
29.2143 -152.802 -76.676
28.8353 -152.682 -75.9055
28.7746 -153.052 -76.2414
29.5254 -153.259 -77.8299
29.4618 -153.615 -78.1847
29.5918 -152.916 -77.4561
29.0804 -153.483 -77.4301
29.3994 -153.977 -78.532
29.0197 -153.853 -77.7665
28.5842 -154.123 -77.3042
28.9594 -154.225 -78.0998
28.3349 -153.301 -75.8074
28.6469 -153.762 -76.9549
28.7129 -153.417 -76.5844
28.0295 -154.159 -76.2796
28.1445 -154.372 -76.8703
28.0834 -154.741 -77.2087
28.4875 -154.804 -78.0645
28.0229 -155.112 -77.5438
28.5233 -154.492 -77.6421
27.6409 -154.977 -76.7929
27.5767 -155.33 -77.1522
29.3486 -149.852 -73.0346
29.281 -150.19 -73.4159
29.4108 -149.489 -72.6885
29.4735 -149.129 -72.3392
28.9672 -149.72 -72.28
29.0289 -149.355 -71.937
28.9041 -150.079 -72.6317
28.8404 -150.435 -72.9876
28.7744 -150.78 -73.3583
28.4036 -150.698 -72.5343
28.5291 -149.978 -71.8349
140.798 -33.3922 -9.90749
28.5948 -149.631 -71.466
140.809 -34.0625 -9.7739
140.294 -34.2156 -9.80715
28.4666 -150.339 -72.1832
28.2468 -150.155 -71.5311
28.1585 -149.897 -71.0093
140.282 -33.5508 -9.94465
27.6932 -150.844 -71.3253
28.0956 -150.56 -71.8022
28.3396 -151.053 -72.8922
27.9664 -150.96 -72.0834
27.5527 -151.249 -71.5982
27.4093 -151.653 -71.8706
28.7144 -151.153 -73.6902
29.0867 -151.242 -74.5047
28.6512 -151.512 -74.0427
28.5854 -151.857 -74.4123
29.027 -151.617 -74.834
28.3363 -152.015 -74.1433
28.5254 -152.231 -74.7435
139.78 -34.3699 -9.84129
140.304 -34.8962 -9.6808
140.313 -35.5891 -9.56319
28.0493 -151.895 -73.3894
27.9144 -152.299 -73.6632
27.6486 -152.742 -73.8584
28.275 -151.404 -73.2538
27.7325 -151.774 -72.6305
27.9054 -151.329 -72.4215
27.2936 -152.058 -72.1476
139.75 -33.0841 -10.1472
139.767 -33.7118 -9.9835
27.7874 -152.085 -73.0714
138.737 -34.0222 -10.053
139.28 -35.1666 -9.72202
139.266 -34.519 -9.87169
139.251 -33.8771 -10.0254
138.223 -34.1751 -10.0861
137.708 -34.3301 -10.1207
137.725 -34.9579 -9.957
138.752 -34.6625 -9.89814
137.689 -33.7161 -10.2941
137.193 -34.4895 -10.1584
137.172 -33.8881 -10.3408
29.3348 -158.871 -84.6628
89.893 -170.614 -62.7585
89.7156 -170.727 -63.4366
90.6755 -171.847 -63.7738
89.7464 -171.25 -64.4446
89.9927 -171.661 -64.7807
90.49 -171.959 -64.4506
89.2488 -171.474 -65.7776
89.0479 -171.064 -65.449
90.2677 -171.549 -64.1185
89.4597 -170.839 -64.102
89.9129 -171.137 -63.7647
93.7201 -174.338 -61.688
94.0635 -174.635 -61.3328
93.9738 -174.749 -62.0252
90.6893 -170.571 -60.3559
90.1026 -169.864 -60.3755
90.4112 -170.16 -60.0146
90.7677 -170.456 -59.6616
91.3951 -171.164 -59.6486
90.8714 -170.227 -58.2643
92.028 -171.756 -58.9294
91.7254 -171.46 -59.2913
91.4595 -171.049 -58.952
90.4963 -170.045 -59.3214
91.1162 -170.753 -59.3072
91.1656 -170.638 -58.6082
90.5069 -169.93 -58.616
91.5073 -170.934 -58.2527
90.5506 -169.815 -57.9161
91.1466 -170.522 -57.898
90.8214 -170.341 -58.9632
92.8745 -175.541 -66.7955
76.8696 -159.15 -63.486
77.4835 -159.074 -62.8371
77.4092 -159.379 -63.2624
76.941 -158.831 -63.0795
77.5593 -158.776 -62.4011
120.138 -24.9399 -25.5397
119.609 -25.201 -25.6493
119.516 -25.1494 -26.2207
77.3303 -159.662 -63.7181
119.699 -25.2739 -25.0931
119.253 -25.6544 -24.6793
119.785 -25.3675 -24.5514
118.631 -25.8705 -25.365
119.165 -25.5743 -25.2305
118.721 -25.9469 -24.8112
79.4993 -162.9 -65.6382
79.963 -163.427 -65.8508
119.34 -25.7538 -24.1418
118.896 -26.1236 -23.7205
78.6474 -161.548 -64.7794
79.1155 -162.096 -64.9633
118.81 -26.0202 -24.2552
83.727 -162.556 -59.0744
84.5328 -164.311 -61.0965
84.0542 -164.012 -61.4296
83.7754 -163.601 -61.0882
83.5291 -163.19 -60.7521
84.419 -163.264 -59.072
84.1862 -163.376 -59.7411
84.7222 -164.198 -60.4203
84.4575 -163.787 -60.0812
84.2352 -163.899 -60.752
85.6275 -164.156 -58.0355
85.3774 -163.745 -57.6988
85.0121 -163.449 -58.0504
84.5872 -163.151 -58.3923
83.9417 -162.443 -58.4023
84.173 -162.854 -58.736
99.2155 -98.5334 -27.9333
98.894 -98.792 -27.5082
85.4978 -163.632 -57.0113
84.831 -162.923 -57.0179
84.4328 -162.626 -57.3641
84.9186 -162.809 -56.3251
85.0975 -163.334 -57.3573
85.8176 -164.681 -59.0695
85.4257 -164.907 -60.4197
85.5857 -164.793 -59.7388
84.9191 -164.085 -59.7453
85.381 -164.384 -59.4095
85.1726 -164.496 -60.0826
85.9184 -164.567 -58.3789
85.9755 -164.453 -57.6811
86.2697 -164.864 -58.0249
85.2598 -163.859 -58.3867
85.5284 -164.27 -58.7264
85.1218 -163.973 -59.0713
84.6511 -163.674 -59.4057
84.8462 -163.562 -58.7304
83.0678 -162.37 -60.0851
82.9732 -161.324 -58.0637
83.4484 -162.144 -58.733
83.9669 -162.966 -59.4094
83.5135 -162.668 -59.7466
83.3099 -162.258 -59.4175
82.3521 -161.139 -59.0807
82.7981 -161.437 -58.7423
82.3461 -161.661 -60.0827
82.8457 -161.96 -59.753
82.6006 -161.549 -59.4171
83.0542 -161.847 -59.0799
82.1205 -161.251 -59.75
83.2002 -161.734 -58.3967
83.6814 -162.032 -58.064
82.5403 -161.026 -58.4043
83.2626 -162.78 -60.4128
83.0726 -162.892 -61.0889
84.0152 -163.489 -60.4203
83.7422 -163.078 -60.0798
84.3526 -162.741 -58.0582
84.0619 -162.329 -57.7148
84.7166 -163.037 -57.7063
83.4189 -161.622 -57.7253
87.2661 -170.346 -67.0041
86.5 -168.743 -65.6438
85.0279 -167.105 -65.0738
85.8227 -167.816 -65.0881
85.9502 -168.465 -65.935
86.037 -168.22 -65.4269
85.0188 -167.393 -65.5361
85.4822 -167.918 -65.7506
85.4021 -168.196 -66.2144
86.4909 -169.046 -66.0848
85.8625 -168.706 -66.4486
86.1706 -169.157 -66.7396
86.2478 -169.518 -67.1137
85.6978 -169.239 -67.4064
86.1709 -169.811 -67.5571
85.3182 -168.455 -66.7034
84.7775 -168.22 -66.9345
85.2367 -168.725 -67.1763
85.0833 -169.312 -68.0596
85.6221 -169.537 -67.8411
85.16 -169.019 -67.6178
84.6204 -168.79 -67.8414
84.541 -169.07 -68.3006
85.7755 -168.95 -66.9581
88.9046 -168.972 -61.4137
88.7188 -169.085 -62.0905
87.4251 -168.191 -63.113
87.587 -168.078 -62.4323
88.2495 -168.264 -61.4221
88.1505 -167.74 -60.403
88.082 -167.855 -61.0989
87.7988 -167.444 -60.7569
88.4836 -168.674 -61.7562
87.8249 -167.966 -61.7641
85.9779 -166.251 -62.1046
85.6969 -165.84 -61.7628
86.6855 -167.482 -63.1077
87.1054 -167.78 -62.765
99.2857 -98.4189 -27.2377
85.7409 -166.363 -62.773
85.0391 -165.654 -62.7738
85.9475 -166.773 -63.1026
85.7051 -166.885 -63.7701
85.2672 -166.6 -64.0911
85.4809 -166.475 -63.4376
86.4084 -166.549 -61.7636
86.6744 -166.96 -62.1029
86.2271 -166.662 -62.4411
85.5174 -165.953 -62.4406
86.4802 -167.072 -62.7783
86.4003 -167.316 -63.2892
86.6336 -166.437 -61.0933
86.3159 -165.963 -60.8335
87.0961 -166.735 -60.7575
86.8007 -166.846 -61.4164
87.3314 -167.145 -61.0918
87.2246 -166.621 -60.0714
86.8282 -166.324 -60.4179
86.9509 -166.21 -59.7309
87.5149 -167.032 -60.4146
86.1802 -165.616 -60.4275
85.8167 -165.204 -60.0723
99.6378 -98.0163 -26.1307
99.5358 -98.1887 -26.7388
86.1242 -166.138 -61.4213
86.5494 -165.913 -60.0765
86.3011 -165.502 -59.7402
87.6124 -167.556 -61.4335
87.0667 -167.257 -61.7557
87.3404 -167.668 -62.0962
86.8732 -167.369 -62.4312
88.0237 -168.376 -62.0924
83.5217 -164.235 -62.7569
84.2696 -164.945 -62.7636
83.752 -164.645 -63.0903
84.5284 -165.355 -63.1017
83.4061 -164.464 -63.283
99.1918 -98.236 -25.7375
84.8119 -166.114 -63.8235
84.8062 -166.695 -64.7417
85.1943 -166.912 -64.5075
84.7253 -166.36 -64.33
84.3703 -165.875 -64.0788
83.156 -165.249 -64.7389
84.0505 -165.986 -64.7337
83.617 -165.762 -64.9692
83.0743 -165.518 -65.2131
83.5336 -166.024 -65.4544
83.7024 -165.51 -64.4706
83.8705 -164.994 -63.4907
84.1827 -165.465 -63.7523
83.4128 -164.756 -63.742
83.7888 -165.264 -63.9647
98.9905 -98.5933 -26.9363
99.0936 -98.4262 -26.321
81.1264 -163.628 -64.9124
81.8352 -163.345 -63.7022
81.2871 -163.075 -63.9817
82.1365 -164.415 -64.8569
82.6848 -164.686 -64.5755
82.4423 -165.508 -65.9815
81.9021 -165.276 -66.2091
82.5964 -164.974 -65.023
81.9763 -164.97 -65.784
81.5099 -164.431 -65.5894
81.4327 -164.722 -66.0341
82.2182 -164.146 -64.382
82.0557 -164.69 -65.3249
81.6701 -163.876 -64.662
81.0472 -163.909 -65.3707
81.5881 -164.144 -65.1383
82.9781 -163.936 -63.0794
82.8503 -164.157 -63.6131
82.474 -163.388 -62.8884
83.0797 -163.415 -62.093
83.314 -163.825 -62.4271
83.8177 -164.124 -62.0981
83.0248 -163.671 -62.5911
81.9193 -163.087 -63.2118
81.7536 -163.615 -64.1757
82.3879 -163.637 -63.392
82.3011 -163.882 -63.9002
83.2351 -164.967 -64.2812
82.7651 -164.41 -64.1105
82.5246 -165.241 -65.5036
89.1447 -167.875 -56.9144
88.8287 -167.579 -57.274
88.5345 -167.052 -56.223
88.8381 -167.464 -56.5685
89.4317 -168.171 -56.55
88.8505 -167.348 -55.8634
89.1324 -167.759 -56.2052
86.2396 -164.11 -55.6028
86.4428 -164.635 -56.639
86.8666 -164.817 -55.5898
86.7787 -164.931 -56.2826
87.1392 -165.228 -55.9302
87.0396 -165.342 -56.621
87.4361 -165.639 -56.2745
87.7005 -166.05 -56.6135
87.9827 -166.461 -56.9555
88.4902 -167.283 -57.63
88.2012 -166.987 -57.9941
87.5685 -166.28 -58.0062
87.6689 -166.165 -57.3155
87.9764 -166.577 -57.6615
86.9129 -165.572 -58.0146
86.6494 -165.161 -57.6757
86.6985 -165.046 -56.9766
99.7372 -97.8313 -25.54
87.1621 -165.982 -58.3511
86.785 -165.685 -58.7008
87.2374 -165.868 -57.6563
87.3493 -165.754 -56.9674
86.9745 -165.457 -57.3175
87.433 -165.524 -55.5669
86.8773 -164.702 -54.8844
86.8518 -164.586 -54.1732
87.1612 -164.997 -54.5195
87.6951 -165.935 -55.9055
87.1763 -165.113 -55.2291
87.1186 -164.881 -53.8055
87.9052 -166.344 -56.2357
72.4755 -7.38483 -5.53153
88.2162 -166.756 -56.5823
88.2307 -166.872 -57.2918
88.5133 -167.167 -56.9267
71.6193 -6.53263 -4.8359
71.6292 -5.91909 -4.83426
71.1565 -6.01033 -4.6176
100.024 -97.2228 -23.8414
88.2135 -166.64 -55.8747
72.0727 -7.0097 -5.11637
71.6133 -7.16486 -4.81186
72.0648 -7.63286 -5.10479
71.6051 -7.78662 -4.80221
72.369 -8.08082 -5.39872
72.7501 -7.79583 -5.87221
72.6874 -8.49251 -5.74658
85.9017 -163.582 -54.5447
72.0575 -8.25888 -5.08929
85.2913 -163.106 -55.9747
84.9753 -162.694 -55.6272
85.0492 -162.58 -54.9322
85.103 -162.465 -54.2338
84.8216 -162.054 -53.8921
85.6748 -163.287 -54.9189
85.3391 -162.991 -55.2754
85.402 -162.876 -54.5785
72.6122 -9.18899 -5.61888
72.0423 -9.50811 -5.06214
72.4918 -8.64466 -5.49525
85.6553 -163.171 -54.2086
85.3821 -162.645 -53.161
85.1085 -162.234 -52.8205
71.5986 -8.41641 -4.78152
72.0499 -8.88361 -5.07556
86.5274 -164.289 -54.5314
86.4607 -164.173 -53.8134
86.1504 -163.877 -54.174
86.2034 -163.762 -53.4756
71.5913 -9.04237 -4.7661
86.7573 -164.468 -53.4506
72.4741 -10.5428 -5.42117
71.5807 -9.65279 -4.77203
85.4143 -162.761 -53.8734
72.0359 -10.1384 -5.04072
85.168 -162.35 -53.5373
71.5723 -10.2738 -4.76341
85.9311 -163.467 -53.8424
71.1606 -5.36875 -4.65451
84.1565 -161.461 -54.606
71.1486 -6.63344 -4.60609
84.5052 -161.527 -52.8374
84.4849 -161.642 -53.5412
84.8514 -161.939 -53.1898
71.1408 -7.25739 -4.59344
83.8884 -160.935 -53.5592
83.6393 -160.524 -53.2227
83.3175 -160.228 -53.5814
83.3633 -160.113 -52.8818
83.6075 -160.639 -53.9246
83.2536 -160.343 -54.2781
83.9153 -161.051 -54.2707
83.5532 -160.754 -54.6229
83.8201 -161.165 -54.9623
84.1661 -161.346 -53.9004
84.1467 -161.23 -53.1901
83.6306 -160.408 -52.5142
83.8808 -160.819 -52.8509
84.4721 -161.757 -54.2462
84.7498 -162.168 -54.5874
84.3552 -161.871 -54.9343
84.673 -162.283 -55.282
85.0353 -162.117 -52.1014
84.7283 -161.705 -51.7555
84.3888 -161.409 -52.1113
84.7959 -161.822 -52.4736
99.5747 -97.426 -23.4708
84.3186 -161.292 -51.3927
84.9533 -162 -51.381
84.0902 -161.113 -52.4738
83.7834 -160.702 -52.1279
84.0191 -160.997 -51.7551
79.7565 -159.878 -61.2512
71.1075 -9.74184 -4.55839
79.6738 -160.143 -61.7317
80.434 -161.717 -63.1305
80.9856 -162.004 -62.8284
79.5023 -160.643 -62.7342
79.4238 -160.928 -63.1877
79.8104 -161.746 -63.8443
79.2658 -161.494 -64.1005
79.3449 -161.211 -63.6436
80.5187 -161.462 -62.6366
80.1356 -160.66 -61.9571
80.7402 -161.285 -62.0572
79.5857 -160.382 -62.2484
80.0518 -160.92 -62.4451
79.9696 -161.187 -62.923
79.8894 -161.464 -63.3872
80.3554 -162.002 -63.5847
81.245 -161.263 -61.311
80.8444 -160.764 -61.0713
81.3802 -161.064 -60.7475
81.8962 -160.84 -59.4175
81.365 -160.541 -59.7421
81.1175 -160.653 -60.4088
81.6098 -160.952 -60.0779
80.0818 -160.055 -61.0622
80.8759 -160.242 -60.0735
80.61 -160.354 -60.7372
79.8569 -159.644 -60.7296
80.3816 -159.944 -60.404
80.224 -160.423 -61.4386
80.5323 -160.875 -61.7274
81.2995 -161.585 -61.7373
81.5199 -161.995 -62.0691
81.0701 -161.748 -62.3353
81.8522 -161.884 -61.4163
81.539 -162.299 -62.5134
79.1211 -159.851 -62.0416
79.0365 -160.107 -62.5355
79.2872 -159.325 -61.0753
78.7375 -159.048 -61.3655
79.208 -159.607 -61.5333
78.5775 -159.603 -62.2918
77.6372 -158.488 -61.9521
78.6612 -159.343 -61.8045
78.4929 -159.859 -62.7852
78.0267 -159.321 -62.589
78.1078 -159.048 -62.1187
78.187 -158.766 -61.6613
78.9557 -160.381 -63.0036
78.8808 -160.683 -63.4334
78.4159 -160.151 -63.2288
78.3375 -160.437 -63.6813
78.8024 -160.969 -63.8859
80.1536 -159.533 -60.0709
81.7517 -159.271 -56.385
81.9753 -159.681 -56.7174
81.8343 -159.157 -55.6914
80.3018 -157.853 -56.3791
100.204 -96.7642 -22.7817
80.871 -158.675 -57.0638
81.5632 -158.746 -55.3513
81.4838 -158.86 -56.0454
81.1744 -158.449 -55.6991
80.9868 -158.561 -56.3756
80.7108 -158.15 -56.0346
80.9016 -158.038 -55.3587
81.2733 -158.334 -55.0081
81.2849 -158.973 -56.7201
81.5361 -159.383 -57.057
81.6211 -159.907 -58.0738
82.025 -160.204 -57.7285
82.2674 -160.615 -58.0639
82.0864 -160.728 -58.7415
81.8416 -160.317 -58.4056
81.1476 -159.609 -58.4077
72.6968 -30.0011 -5.82127
82.1959 -160.091 -57.0493
81.7768 -159.794 -57.3921
72.2133 -29.7863 -5.16459
81.0836 -159.085 -57.3943
72.5365 -31.3939 -5.56427
72.372 -30.287 -5.35698
81.3438 -159.496 -57.7327
80.8659 -159.197 -58.0659
82.1855 -159.453 -55.3375
82.3073 -159.339 -54.6503
71.7601 -30.6321 -4.75571
81.9469 -159.043 -55.0027
82.063 -158.929 -54.3145
82.0807 -159.567 -56.0275
82.4735 -159.864 -55.6804
82.321 -159.978 -56.3626
82.5858 -159.75 -54.9916
72.2674 -30.983 -5.22448
72.4506 -32.0903 -5.43484
82.6809 -159.521 -53.5929
72.1889 -31.6524 -5.13443
82.6187 -159.635 -54.2899
71.7426 -31.8707 -4.74323
82.8991 -160.046 -54.6315
81.6752 -158.632 -54.6625
79.8441 -157.555 -56.7157
80.1309 -157.966 -57.0583
80.5796 -158.264 -56.7203
71.7703 -30.02 -4.75205
80.4837 -157.74 -55.7017
80.0551 -157.442 -56.043
71.2962 -30.7656 -4.48098
71.2888 -31.3913 -4.4659
71.7509 -31.249 -4.7527
71.2803 -32.0117 -4.45816
71.7353 -32.4966 -4.72778
100.377 -96.2687 -21.7728
71.2725 -32.6355 -4.44563
72.6874 -32.5007 -5.76935
72.1805 -32.2732 -5.12618
72.3365 -32.7861 -5.3008
71.2635 -33.2535 -4.4412
99.752 -96.9532 -22.4306
99.8376 -96.7025 -21.9303
27.2824 -145.869 -64.3505
27.226 -146.26 -64.6585
27.6622 -145.994 -65.116
26.8029 -146.883 -64.5704
27.1683 -146.645 -64.9749
27.5706 -146.72 -65.8142
27.1872 -147.005 -65.3403
26.7536 -147.289 -64.8582
27.1143 -147.41 -65.6242
27.4228 -147.491 -66.4373
26.9454 -147.814 -65.8925
26.9405 -146.072 -64.0012
26.412 -146.412 -63.4226
26.4494 -146.762 -63.8056
26.8554 -146.477 -64.2831
26.3684 -147.574 -64.3841
25.9715 -147.858 -63.908
26.3911 -147.167 -64.0919
26.2 -148.04 -64.5642
26.6732 -147.694 -65.1409
26.1661 -148.384 -64.9427
26.5651 -148.099 -65.4191
25.7588 -148.669 -64.465
26.0469 -148.789 -65.2191
25.7175 -149.075 -64.7541
25.441 -147.794 -63.0299
25.9283 -147.111 -63.2145
26.0292 -147.453 -63.6216
25.3939 -148.229 -63.277
25.8278 -148.263 -64.1804
25.4736 -148.548 -63.7113
25.4417 -148.954 -64.0019
20.2393 -164.944 -62.2045
20.6869 -166.054 -62.459
21.1033 -167.676 -62.8562
20.6612 -167.914 -62.4374
21.1932 -168.885 -62.9051
21.1169 -169.582 -62.7772
20.655 -169.206 -62.3511
21.0905 -170.259 -62.6854
98.6737 -99.0291 -28.8346
98.3451 -99.1795 -27.7293
98.7866 -98.9387 -28.1516
98.44 -98.9734 -27.1677
98.6407 -98.6127 -25.9735
109.7 -201.455 -53.3167
109.211 -201.332 -52.5298
109.343 -201.043 -52.9626
108.771 -200.918 -52.162
109.598 -201.744 -52.8887
109.447 -202.033 -52.4529
109.606 -202.733 -52.3634
109.396 -203.021 -51.9177
108.484 -200.216 -52.2305
108.361 -200.505 -51.7991
107.912 -200.091 -51.43
108.049 -201.082 -50.9257
108.038 -199.802 -51.8619
108.214 -200.794 -51.3639
107.67 -200.233 -50.8738
108.186 -201.782 -50.8327
109.055 -201.62 -52.0929
108.537 -201.167 -51.6847
108.563 -201.721 -51.4685
109.006 -202.117 -51.8241
108.362 -201.494 -51.2726
108.601 -202.193 -51.1947
109.021 -202.608 -51.5608
108.159 -202.77 -50.3016
108.665 -203.217 -50.7034
109.231 -203.309 -51.4796
108.831 -202.896 -51.1185
108.406 -203.472 -50.2265
107.965 -202.069 -50.3854
107.786 -202.378 -49.9601
108.189 -202.32 -50.6018
107.974 -203.058 -49.8601
99.291 -98.0498 -25.1483
95.7634 -187.732 -41.2169
96.479 -188.931 -41.5752
96.7656 -188.645 -42.0333
96.2322 -188.683 -41.3575
96.1696 -189.217 -41.1135
96.2962 -189.917 -41.0187
95.7876 -188.304 -41.0138
95.345 -187.909 -40.6595
95.8094 -188.894 -40.8235
95.283 -188.39 -40.377
94.9404 -188.675 -39.9098
94.9595 -189.348 -39.779
95.3862 -189.107 -40.2916
95.4059 -189.714 -40.1129
95.8313 -189.483 -40.6329
95.423 -190.34 -39.9478
94.3746 -187.562 -39.637
94.5146 -186.576 -40.1865
94.2706 -186.863 -39.7354
95.1063 -187.689 -40.4635
94.938 -186.989 -40.5515
94.6836 -187.276 -40.0987
94.5044 -188.292 -39.5643
94.0756 -188.548 -39.063
94.0503 -187.229 -39.3451
94.0283 -186.64 -39.5364
93.6032 -186.868 -39.0149
93.5837 -186.261 -39.1929
92.9525 -186.32 -38.5172
93.1373 -185.894 -38.8586
93.1774 -187.102 -38.4972
94.0568 -187.848 -39.1738
93.6264 -187.447 -38.8166
94.9281 -188.074 -40.0934
93.1944 -187.728 -38.3326
93.2032 -188.416 -38.2125
93.6367 -188.125 -38.6882
94.6372 -189.659 -39.3336
94.5196 -188.932 -39.4096
94.1067 -189.823 -38.7494
94.9736 -189.997 -39.6301
95.001 -191.3 -39.3367
94.5585 -191.147 -38.9583
94.1161 -190.722 -38.6058
94.0906 -189.19 -38.909
93.6458 -188.842 -38.5639
93.6569 -189.483 -38.4338
93.2103 -189.119 -38.1009
93.6709 -190.133 -38.2854
102.324 -194.019 -46.787
103.196 -195.834 -46.9943
103.371 -195.546 -47.4342
103.585 -196.247 -47.3538
102.851 -195.514 -46.7086
103.143 -196.822 -46.4591
102.909 -196.589 -46.2537
102.911 -195.132 -47.0632
102.406 -195.138 -46.3678
102.491 -194.719 -46.6989
102.063 -194.306 -46.3331
101.992 -195.28 -45.7855
102.435 -195.675 -46.1397
102.884 -196.024 -46.4617
102.241 -195.995 -45.7201
102.933 -197.161 -46.0508
102.464 -196.211 -45.9112
102.491 -196.764 -45.6942
102.007 -196.282 -45.2706
101.071 -193.254 -45.4175
101.311 -193.48 -45.6186
101.668 -193.893 -45.9727
101.421 -194.18 -45.5212
101.111 -194.461 -45.0555
101.601 -194.88 -45.4351
101.038 -192.75 -45.6687
100.835 -193.066 -45.245
100.432 -192.653 -44.8834
100.215 -192.994 -44.4757
101.092 -193.852 -45.2329
100.576 -193.353 -44.7914
99.3881 -97.8541 -24.5724
100.258 -194.18 -44.099
100.703 -194.053 -44.6968
100.888 -194.753 -44.6115
101.814 -194.593 -45.8812
101.827 -195.582 -45.3566
101.585 -195.372 -45.1677
101.168 -195.536 -44.6002
100.728 -195.128 -44.2365
100.326 -195.933 -43.5151
101.613 -195.914 -44.9433
101.633 -196.522 -44.7651
101.141 -194.988 -44.8206
99.4826 -97.6459 -24.0136
101.75 -197.267 -44.702
102.087 -196.981 -45.1682
101.208 -196.744 -44.2393
101.229 -197.344 -44.0561
101.433 -197.553 -44.239
101.189 -196.132 -44.4141
100.748 -195.74 -44.0621
100.766 -196.349 -43.8852
105.481 -197.613 -49.2581
107.163 -198.817 -51.0122
106.721 -198.417 -50.6543
106.688 -198.852 -50.3427
106.509 -199.14 -49.9021
106.829 -199.863 -49.8539
106.382 -199.502 -49.5231
105.909 -198.026 -49.6238
105.294 -197.901 -48.8162
106.337 -198.44 -49.9895
105.723 -198.314 -49.182
106.126 -198.727 -49.5438
105.913 -199.015 -49.0977
106.419 -199.977 -49.2516
99.2125 -97.3856 -22.5901
106.163 -199.717 -49.0231
105.638 -200.29 -48.1149
106.014 -200.053 -48.6223
105.231 -196.911 -49.3325
105.056 -197.199 -48.8927
104.636 -196.786 -48.5283
105.04 -197.672 -48.6113
105.067 -198.222 -48.3926
103.969 -195.671 -48.239
104.209 -196.373 -48.1627
103.793 -195.96 -47.799
104.169 -196.776 -47.8274
99.6644 -97.1945 -22.944
104.238 -197.362 -47.6408
104.463 -197.074 -48.0888
104.648 -197.775 -48.0035
104.361 -198.061 -47.5454
104.77 -198.475 -47.9081
105.498 -198.602 -48.7341
105.127 -199.281 -47.9262
104.536 -198.762 -47.4586
104.121 -198.349 -47.0951
104.273 -199.003 -46.9715
103.804 -198.054 -46.8326
103.831 -198.606 -46.6156
99.0338 -97.8517 -23.6395
105.541 -199.133 -48.5045
105.095 -198.768 -48.171
105.569 -199.678 -48.2817
105.154 -199.826 -47.704
104.78 -199.463 -47.3831
105.325 -200.576 -47.6525
104.762 -200.562 -46.9336
104.94 -200.164 -47.2937
104.299 -199.565 -46.7608
104.188 -200.036 -46.4638
98.4584 -190.298 -43.4931
99.747 -192.04 -44.3329
99.776 -192.575 -44.1041
99.3052 -191.639 -43.9743
99.7971 -193.171 -43.9177
99.0543 -191.412 -43.7709
98.8673 -190.711 -43.8557
98.4482 -191.391 -43.0407
99.2698 -192.113 -43.6906
98.8917 -191.779 -43.3903
98.4734 -191.955 -42.8321
99.3537 -192.782 -43.5675
99.5399 -193.512 -43.5039
99.2634 -193.799 -43.0475
98.9378 -192.94 -42.9959
98.3104 -192.971 -42.3002
98.9591 -193.534 -42.8085
97.5202 -189.415 -42.7084
98.6279 -190.998 -43.4054
97.924 -190.871 -42.5833
98.0392 -189.885 -43.1288
97.5036 -190.458 -42.2188
97.9855 -190.393 -42.8676
98.0612 -191.571 -42.4903
97.3121 -189.757 -42.303
97.5451 -189.981 -42.5013
97.13 -190.133 -41.9254
96.8889 -189.344 -41.938
97.156 -190.692 -41.7129
97.6549 -191.158 -42.1281
97.3491 -191.444 -41.6669
98.9829 -192.399 -43.2325
97.7807 -191.858 -42.0333
96.7362 -190.879 -41.1623
96.5469 -191.316 -40.8288
96.9875 -191.73 -41.1966
96.7763 -192.842 -40.7276
98.6524 -192.685 -42.7673
98.2093 -192.271 -42.3991
97.6374 -192.303 -41.7124
97.6532 -192.939 -41.5545
97.8899 -192.557 -41.9357
98.534 -193.762 -42.2869
98.1124 -193.964 -41.7466
98.0944 -193.344 -41.9164
97.6654 -193.602 -41.4158
97.2044 -192.591 -41.2334
97.219 -193.236 -41.0817
89.1441 -181.659 -35.7943
89.4824 -182.023 -36.1105
89.1556 -182.328 -35.6597
89.1743 -182.942 -35.4862
